# .PCD v0.7 - Point Cloud Data file format
VERSION 0.7
FIELDS x y z
SIZE 4 4 4
TYPE F F F
COUNT 1 1 1
WIDTH 502
HEIGHT 1
VIEWPOINT 0 0 0 1 0 0 0
POINTS 502
DATA ascii
-0.29275435 -0.99530822 -0.0091023091
0.29893723 -0.85057026 -0.012573119
-0.27745444 -0.86926174 -0.017511562
-0.013718992 -0.81362379 -0.015616439
-0.020071315 -0.81603181 -0.0095978472
-0.033636667 -0.814569 -0.012904352
-0.020074183 -0.81502056 0.0011079928
-0.014628165 -0.81212014 -0.008930671
-0.026327781 -0.81541395 0.0012819953
-0.020703284 -0.8145721 0.0094962949
-0.024467001 -0.8148815 0.010267702
-0.0036267436 -0.80289751 -0.016369443
-0.037330575 -0.81101853 -0.0087344777
-0.010103527 -0.80678368 0.0013390566
-0.028339894 -0.81325936 0.012963199
-0.004720747 -0.80204678 -0.0087737422
-0.044634696 -0.80586177 -0.0084322309
0.29253936 -0.76668125 -0.025250098
-0.037280872 -0.80958384 0.0016101473
-0.050750032 -0.80252844 -0.016617231
-0.057468612 -0.77955186 0.022457408
-0.07027293 -0.78067309 -0.0075067198
-0.0069844439 -0.76927483 0.02585353
0.29649043 -0.52833509 -0.11090343
0.0052659991 -0.7918126 -0.018245932
-0.044712935 -0.65410864 -0.032121651
0.040007215 -0.74933141 -0.019840481
-0.13166671 -0.71895689 -0.029258272
-0.071599469 -0.72766602 0.016198477
-0.087470494 -0.72931087 0.012472185
-0.027659183 -0.78866386 0.027155226
-0.027762452 -0.74934065 0.022465182
0.27960536 -0.54783976 -0.071561389
-0.0021532131 -0.79496425 0.017752437
-0.0072205276 -0.77942693 0.024792451
-9.2913142e-05 -0.79629397 0.012161008
-0.027809301 -0.81648868 -0.0086901868
-0.067452274 -0.70972443 0.014071854
-0.024468007 -0.67437041 -0.02394541
-0.030852726 -0.81354988 0.0040911953
-0.025864046 -0.66814482 -0.031304199
-0.085184321 -0.68173766 0.0072238077
-0.015456354 -0.81174761 0.0015306321
-0.087168522 -0.68914855 0.0076530501
-0.0070654741 -0.66017574 -0.042186745
-0.034578741 -0.65799528 -0.039818913
0.27977604 -0.61855179 -0.04971559
-0.057131559 -0.6895709 0.0098520368
-0.032824319 -0.79661447 0.026617989
0.2919099 -0.5218308 -0.10268595
-0.057686642 -0.75923127 0.021279909
-0.057260327 -0.72902465 0.018144334
-0.07690198 -0.76905477 0.0014209372
-0.019810811 -0.67968875 -0.020186322
-0.067578077 -0.68895876 0.0097110914
0.027655443 -0.76605302 -0.0070967227
-0.097343735 -0.75767899 0.0019250042
-0.011441866 -0.7725125 0.026658136
0.0087532206 -0.78607595 0.0097525632
-0.015440095 -0.6682235 -0.03637255
-0.05737453 -0.70895803 0.014409968
-0.11250136 -0.7124418 0.0069697779
-0.10278601 -0.69179821 0.007248051
-0.06949909 -0.65184563 -0.0076714442
0.019044163 -0.77525264 0.0014794448
0.019398486 -0.77663875 -0.020663878
-0.08385741 -0.6458379 -0.031280689
0.023003383 -0.74983299 0.022453144
-0.057800509 -0.65186459 -0.019822003
0.036579892 -0.7520321 -0.0092231566
-0.032265436 -0.81372708 -0.0040026209
-0.037643451 -0.78912157 0.025282856
-0.033430398 -0.76941091 0.026777178
0.019739762 -0.7309649 0.0095115034
-0.027891457 -0.65873551 -0.040468182
-0.032709628 -0.68589914 0.0063279164
0.024173765 -0.77059144 -0.018533202
-0.077006191 -0.6795966 0.0081230188
0.019482862 -0.76544702 0.017796647
0.29444689 -0.50905627 -0.10803276
0.28930092 -0.51004696 -0.099273078
-0.088796042 -0.66453868 -0.011589954
-0.12539983 -0.71263653 0.0021040991
0.29803997 -0.50996953 -0.11259428
-0.037848048 -0.69938564 0.013175084
-0.056804556 -0.65934956 -0.010199543
-0.046087515 -0.64779013 -0.038988814
-0.11457714 -0.67169935 -0.04237416
-0.12911573 -0.69557685 -0.028624441
-0.060779188 -0.78321147 0.012815597
-0.041475929 -0.66527045 -0.017338952
-0.1065688 -0.73833138 0.010978444
0.29489341 -0.701096 -0.048931796
-0.094896957 -0.75661087 0.009990734
-0.062069584 -0.6439231 -0.027220275
-0.047779206 -0.79934436 0.0021945194
-0.04916526 -0.64219058 -0.041510794
-0.047221966 -0.72927225 0.01843036
0.012990513 -0.74928033 0.02323211
-0.017514599 -0.72906613 0.019761018
-0.06809663 -0.66044772 0.00013551408
-0.085892536 -0.76698631 -0.017603584
-0.069525093 -0.67298484 0.0071254349
0.2720955 -0.52813625 -0.067322597
-0.00029623107 -0.71316594 0.0093249241
-0.010641401 -0.80621558 0.010939467
-0.0090690432 -0.7016691 0.0021264732
-0.10832927 -0.74943674 -0.006668828
-0.03719379 -0.74920219 0.021993669
0.12879165 -0.74697918 -0.033846732
0.010519963 -0.78472835 -0.0089334007
-0.037591573 -0.76916206 0.025138317
-0.012392813 -0.71497411 0.01635699
-0.056739662 -0.7161175 0.016001143
0.0172321 -0.73546517 0.015372979
-0.073982403 -0.77446753 -0.0024698391
-0.10142031 -0.65670919 -0.041290354
-0.078644857 -0.74545544 0.016323958
-0.11262535 -0.74707407 -0.0053035133
-0.088303275 -0.67852205 0.0055789342
-0.083643161 -0.66140896 -0.0051831845
-0.05603594 -0.79919177 -0.020063497
-0.049652755 -0.80107868 -0.0079163164
-0.10716028 -0.71932828 0.0094119832
0.023314225 -0.77095377 -0.0069722109
0.026566183 -0.7171126 -0.021920126
-0.046826623 -0.63836139 -0.045614868
-0.07074181 -0.78248262 -0.017971504
-0.033645086 -0.78662747 0.026889144
0.037708409 -0.7448808 -0.0012295446
-0.090206273 -0.66087168 -0.017062776
-0.10984658 -0.7480796 -0.018240446
0.040538386 -0.7398439 -0.013362005
-0.093537353 -0.68135035 0.0072317775
0.03147598 -0.71157867 -0.030954732
-0.047061652 -0.68200624 0.0068684663
-0.053345673 -0.63594586 -0.044920534
-0.017852603 -0.71957386 0.018749578
-0.057148207 -0.76933193 0.022019533
0.29557049 -0.73881108 -0.034977324
0.012499331 -0.73934734 0.020508369
-0.12525436 -0.72770673 -0.0091628283
-0.066797107 -0.72964787 0.017566113
-0.10799655 -0.75058365 -0.029470146
-0.088183142 -0.7614792 0.0014472217
-0.13236332 -0.71570116 -0.010662773
0.0062478934 -0.69659376 -0.030708788
-0.020381421 -0.67081988 -0.030531699
-0.12555394 -0.72536689 0.0014249589
-0.12771854 -0.68191069 -0.042188223
0.27100223 -0.50959921 -0.071559466
0.27081561 -0.54295182 -0.062177278
-0.03952926 -0.81198913 -0.017483087
-0.10663638 -0.70899898 0.0088095907
0.0060669491 -0.79192108 0.0051063956
-0.012645649 -0.69464397 -0.003514959
-0.026463859 -0.66508782 -0.035226297
0.015962591 -0.77237988 0.016078601
0.2905114 -0.50369751 -0.1018151
-0.057779346 -0.6994161 0.012649518
-0.087150134 -0.75050032 0.017651692
-0.057246272 -0.73894572 0.019391241
0.0037682282 -0.68792468 -0.035947461
-0.073621228 -0.6550591 -0.0041838149
-0.10818051 -0.66293615 -0.04239336
-0.057643715 -0.66982836 0.002082523
-0.027405253 -0.82047832 -0.01646048
-0.0098082637 -0.69615334 -0.0058715343
0.032783423 -0.75117898 0.011965755
-0.065362141 -0.64813864 -0.01818786
-0.057956461 -0.7212947 0.017036615
-0.056265231 -0.64783418 -0.026545441
0.29013696 -0.61944205 -0.069510132
-0.027148433 -0.72893327 0.019334458
-0.065788917 -0.77848893 0.011440397
-0.043279946 -0.80549079 -0.00072017941
-0.018094337 -0.76874268 0.026185229
-0.026777303 -0.6893304 0.002299997
-0.1209668 -0.73159444 -0.0070977863
-0.067539014 -0.75919354 0.019012937
-0.053662945 -0.79526186 -0.0031389482
-0.017093506 -0.81181073 0.012617719
0.014316671 -0.77998114 -0.009902928
-0.075445503 -0.63776094 -0.02951281
0.018312836 -0.7746278 0.009314171
-0.017623246 -0.74907285 0.021793688
-0.007508554 -0.72888792 0.01999969
0.29477361 -0.66795135 -0.061151329
-0.05441983 -0.79605949 -0.0088161733
0.27078435 -0.52017945 -0.066339716
0.27785447 -0.50638902 -0.080191627
-0.080484927 -0.76276606 0.013932229
-0.074461758 -0.67276853 0.0070843026
0.28890431 -0.6467849 -0.055618092
-0.097870074 -0.73967493 0.014214398
0.28605473 -0.66071707 -0.045436338
0.028674563 -0.76609606 -0.021721922
0.27721578 -0.51124674 -0.076179065
-0.0065892166 -0.6689595 -0.040338207
0.2827557 -0.50926292 -0.088045932
-0.081641883 -0.7641623 0.0014853977
-0.12322246 -0.73554653 -0.03055926
0.28777492 -0.62448722 -0.063874088
-0.0087756915 -0.70982397 0.011292472
-0.090624981 -0.76311427 -0.025894111
0.010381294 -0.73021209 0.017802261
0.0049848189 -0.79101205 -0.0074203792
0.29846546 -0.50016201 -0.11236372
0.2859892 -0.50592494 -0.094947137
-0.097268887 -0.70930445 0.011307614
0.030369211 -0.74912649 0.019588236
0.28104255 -0.54244363 -0.074856125
0.2842783 -0.52003092 -0.089202657
-0.01918791 -0.71406734 0.01703961
-0.04711087 -0.71577722 0.016180325
-0.05750696 -0.78946912 0.0012884091
-0.058841787 -0.79158002 -0.0082133412
0.27324641 -0.5386259 -0.065813206
0.27876231 -0.58170855 -0.058149222
-0.064486414 -0.63683456 -0.037204817
-0.047365375 -0.76894289 0.02306864
-0.11739787 -0.71957201 0.0084127989
0.014538345 -0.78042847 0.0020106372
-0.031334773 -0.80003929 0.025982715
-0.026741123 -0.79873776 0.027180105
0.29630145 -0.51783907 -0.1088399
-0.017797248 -0.70198375 0.0092043746
0.27613628 -0.55016494 -0.066130146
0.29104853 -0.52837676 -0.095565505
0.29947877 -0.52015722 -0.1124357
0.29296681 -0.54808831 -0.09277992
0.28986204 -0.53238672 -0.092804812
-0.0069419746 -0.7891562 0.022067394
0.28969267 -0.53477055 -0.092674918
0.29404616 -0.53869414 -0.097149901
-0.046825491 -0.78923172 0.022602445
-0.077174336 -0.69914937 0.0099026905
-0.1259055 -0.72085482 0.0079615898
-0.081225745 -0.674797 0.0060483459
-0.065468624 -0.72161931 0.017043049
0.033040784 -0.75817299 -0.020904498
-0.11265571 -0.74528468 -0.030648462
0.29542032 -0.55031699 -0.097204648
-0.12696928 -0.73049682 -0.029930025
0.29234514 -0.55841327 -0.092579752
0.29619202 -0.55856907 -0.097855844
0.29730406 -0.65977979 -0.065540656
-0.087315582 -0.74545932 0.016266918
-0.075543471 -0.76745015 0.012229118
-0.10111515 -0.75129056 0.0046878792
-0.09712217 -0.71950376 0.011518962
-0.066636093 -0.62736857 -0.04640194
0.27883247 -0.61019248 -0.052325919
-0.074113704 -0.63290477 -0.038411882
-0.070328496 -0.64318293 -0.018446932
-0.067376621 -0.63906479 -0.028257426
-0.057625409 -0.62903035 -0.048820361
-0.007380595 -0.7590487 0.024212757
0.014982356 -0.78099835 -0.018700916
-0.077319838 -0.63775843 -0.03373792
-0.074631922 -0.6455071 -0.018638436
-0.076571219 -0.66065705 0.00062881503
0.27859434 -0.60055047 -0.0527598
-0.089065991 -0.63871241 -0.046217915
-0.082665347 -0.64028805 -0.037737846
-0.056931846 -0.63808006 -0.041448653
-0.059793431 -0.79273123 -0.017654311
-0.024685292 -0.80649108 0.026979292
-0.0475947 -0.77923298 0.024692353
0.28112698 -0.60219401 -0.056593932
-0.077682123 -0.7094804 0.011521941
-0.077070318 -0.66836452 0.0044326722
-0.067100205 -0.66896486 0.0049729086
-0.06052215 -0.66321748 -0.00016281327
-0.085606843 -0.67058134 0.0022096825
0.28205094 -0.60916871 -0.055121902
0.033313941 -0.75767994 -0.0065188413
0.015038099 -0.72995049 0.014237529
-0.052190986 -0.65387923 -0.021972053
0.29032427 -0.59955817 -0.066932708
-0.049065784 -0.65988666 -0.017518871
-0.019138003 -0.79848802 0.027267668
-0.049576279 -0.66621065 -0.0090675419
-0.045559023 -0.65577674 -0.028976522
-0.036947433 -0.64904207 -0.045080386
0.042219903 -0.74035043 -0.019516116
-0.056826264 -0.67721963 0.0048560966
-0.04919944 -0.67269915 -4.8282618e-06
-0.038691726 -0.65134245 -0.042618673
-0.13001034 -0.68773234 -0.037945621
-0.055625305 -0.78765088 0.010728971
-0.046020944 -0.66495073 -0.014840393
-0.054175794 -0.78595269 0.019195221
-0.087455258 -0.73959506 0.015321505
-0.058673747 -0.68233162 0.0076592518
-0.047812078 -0.67762315 0.0038861241
0.28424242 -0.61526382 -0.057850283
-0.096435815 -0.68935317 0.0078822691
-0.077372871 -0.68905044 0.0081985435
-0.11933465 -0.73850459 -0.017034667
-0.047405012 -0.69952708 0.01275775
-0.10487536 -0.68996835 0.0037662485
-0.037152983 -0.68874317 0.010364044
0.29285643 -0.61389381 -0.076039508
-0.03598953 -0.80821276 0.011497426
-0.037350219 -0.73915893 0.020765357
-0.10668012 -0.70064503 0.010023667
-0.097564332 -0.69922829 0.0098456824
0.022692008 -0.77196234 0.0033990045
-0.087303706 -0.69923353 0.0091825025
-0.075044848 -0.77593631 -0.0097501613
-0.078830898 -0.62859482 -0.046952236
-0.067248411 -0.69926697 0.011918813
0.0010854946 -0.71880853 0.013107528
-0.053821877 -0.65678984 -0.016592346
-0.023534169 -0.68071067 -0.014669618
-0.016370965 -0.67710096 -0.027038708
-0.077349029 -0.7292015 0.014342129
-0.11493908 -0.70162046 0.0015399796
-0.02780821 -0.69960797 0.011998602
-0.10372671 -0.74472529 0.0065460675
-0.020798031 -0.68678391 -0.0075281966
-0.11192958 -0.70274925 0.0065182359
-0.11924864 -0.70173728 -0.0051354268
-0.11157294 -0.70618117 0.0058433921
-0.087606035 -0.70968258 0.011111701
-0.067230381 -0.6789456 0.0083008604
-0.019882914 -0.69229835 -0.00043668729
-0.13682631 -0.68982315 -0.041882958
-0.12435489 -0.69828165 -0.0162718
-0.11706116 -0.70893818 0.0023206852
-0.04732202 -0.709364 0.014602372
-0.010468437 -0.68666601 -0.020188762
-0.0055388124 -0.67842752 -0.0365276
0.021305118 -0.73648787 0.013693016
-0.037108108 -0.70938605 0.015336719
-0.027345153 -0.70861131 0.015297475
-0.0065823658 -0.68669248 -0.025684426
-0.12426091 -0.70333654 -0.010934669
-0.026734011 -0.77811581 0.026051497
-0.016922746 -0.70931357 0.013889436
-0.12746817 -0.70673656 -0.0083737029
-0.011668996 -0.67849928 -0.029438192
-0.12545536 -0.71968716 0.0052093891
-0.11574207 -0.7143355 0.0063619167
-0.0024302776 -0.68574673 -0.035476077
-0.034058414 -0.78145832 0.026645953
-0.030406592 -0.69102615 0.0088361697
-0.077196583 -0.71915096 0.012588536
-0.068271644 -0.71871346 0.015560365
0.0047374703 -0.78972512 0.012880605
-0.025976034 -0.71274406 0.016810462
-0.0077162227 -0.7492277 0.021840869
-0.004591065 -0.70697933 0.0043692999
-0.047284529 -0.68912375 0.0099573974
-0.067143768 -0.74924386 0.0187866
-0.13270773 -0.71289814 -0.010600361
-0.037682123 -0.71976388 0.017778335
-0.02755798 -0.71887749 0.018006995
-0.066886634 -0.76858044 0.01966894
-0.0051794848 -0.80193067 0.003004089
-0.047789875 -0.72075593 0.017099449
-0.0057511283 -0.7162686 0.014755579
0.0031713829 -0.69289887 -0.032317404
-0.011052235 -0.80481237 0.016914465
-0.0089674396 -0.72054726 0.018154195
-0.041450799 -0.80397969 0.005732235
-0.11569002 -0.72655499 0.0078554424
-0.10783883 -0.72945583 0.010792078
-0.039975461 -0.68191105 0.0085386848
-0.11843246 -0.72933251 0.0021959054
-0.097361147 -0.72926408 0.011580477
0.28580105 -0.66971833 -0.045261558
0.28879863 -0.66405541 -0.048522439
-0.10130978 -0.68567681 0.0035235162
-0.037273392 -0.7292614 0.018729553
0.001398551 -0.72277582 0.01735572
0.29345846 -0.66296571 -0.059089053
0.0097852424 -0.708574 -0.014471035
-0.028189536 -0.76937395 0.026815794
0.0023785911 -0.7295022 0.019057594
0.0082674762 -0.72353745 0.015187137
-0.13185698 -0.7212252 -0.035282612
-0.12553114 -0.73079967 -0.017041869
-0.11401233 -0.73668528 0.0011472484
-0.077884279 -0.73887926 0.015893044
-0.067492768 -0.73880154 0.017765099
-0.047620282 -0.73970491 0.020353939
-0.074187286 -0.74086034 0.01677751
-0.027305197 -0.73918778 0.02083816
-0.064037703 -0.78706253 -0.0081251683
0.024630617 -0.70995688 -0.029311767
-0.04963471 -0.79273272 0.012112216
-0.11667862 -0.73844606 -0.0079426058
-0.10938115 -0.74177825 0.0022930955
-0.016998399 -0.73934275 0.020619323
-0.0070292586 -0.73921692 0.020864652
0.0029582146 -0.73924619 0.021284126
0.022898749 -0.72963268 0.0048647732
0.013010723 -0.77911246 0.012595151
0.021591369 -0.7587347 0.020269454
0.028150739 -0.76581115 0.004481364
-0.068258002 -0.65560138 -0.0041137389
0.032823298 -0.71794605 -0.029163009
0.022640742 -0.74216264 0.019000968
-0.0097664185 -0.80743426 -0.0088500082
-0.096864708 -0.74899101 0.012166501
-0.076638073 -0.74979788 0.017692098
-0.057231989 -0.74922383 0.020609321
-0.047072418 -0.74943322 0.021447528
0.028084438 -0.72290051 -0.016764138
-0.097178072 -0.75852984 -0.01889373
0.29819071 -0.67939979 -0.061591417
-0.11754849 -0.73995239 -0.029468393
-0.01609743 -0.6853444 -0.015799269
-0.10594761 -0.74838394 -0.00046729445
0.029314375 -0.72443336 -0.01959398
0.0027732037 -0.74885434 0.022764398
0.034065612 -0.74021322 0.0032409676
0.29617932 -0.69014955 -0.055025384
-0.088020138 -0.75973052 0.01219115
-0.086015739 -0.75668144 0.0177592
-0.077419922 -0.75852227 0.018245457
0.28874326 -0.69789308 -0.039988138
-0.047378276 -0.75914121 0.022338707
-0.094722599 -0.67954636 0.0034275306
-0.037398174 -0.75934505 0.023040367
0.036595963 -0.75406921 -0.017806733
-0.0085799545 -0.79843575 0.021318201
-0.027044142 -0.75926781 0.024320118
-0.017146975 -0.75940877 0.024703832
0.034540452 -0.74305421 0.011515773
0.0023214277 -0.75923765 0.024748348
0.012565909 -0.75938523 0.02412972
-0.12653086 -0.69285589 -0.025496799
-0.10411545 -0.75541502 -0.0077015469
-0.017409727 -0.66040224 -0.041050903
-0.10303503 -0.75529838 -0.0031216906
-0.016802104 -0.6969319 0.0034657065
-0.097319581 -0.75834757 -0.0091072153
0.046368167 -0.73878717 -0.027624479
-0.0638882 -0.63286442 -0.042650204
-0.074124902 -0.76480734 0.017591082
0.027889956 -0.75503975 0.017803557
0.035132375 -0.75114167 0.0010012263
0.038591329 -0.74653804 -0.0084071551
0.11262191 -0.72931743 -0.03724261
-0.05221111 -0.79322839 0.0040800553
0.029252542 -0.75780952 0.010696335
-0.086876072 -0.76195192 -0.008789584
0.025799235 -0.76115698 0.013682128
-0.017007334 -0.76973015 0.026687553
0.0032717474 -0.76946354 0.024664596
0.01251635 -0.76876539 0.020712478
0.031225672 -0.7592594 0.0019330349
0.29041436 -0.71620935 -0.033934757
-0.027451057 -0.76945978 0.026179535
-0.089209296 -0.76254714 -0.017059788
-0.070580207 -0.77259332 0.011681256
-0.079365596 -0.77049059 -0.0073323133
-0.083858445 -0.76896286 -0.008734039
-0.064569898 -0.77646905 0.018934535
-0.037613619 -0.7786538 0.025511414
0.022079458 -0.76889485 0.011977225
-0.017150983 -0.77857393 0.025944117
-0.040587928 -0.80153161 0.012655038
-0.072275862 -0.77371651 0.0031441008
-0.027368849 -0.78155446 0.026653087
0.0023826058 -0.77910602 0.02215695
-0.067973234 -0.77987397 0.0018581349
-0.01768448 -0.78059673 0.026672978
-0.011882969 -0.7777347 0.026740411
0.29959437 -0.72171634 -0.049517505
0.0096986694 -0.77734178 0.018605597
-0.087360382 -0.7194497 0.011808802
-0.080872558 -0.77294749 -0.018253848
0.29256821 -0.73213267 -0.035571974
0.29744196 -0.72644961 -0.04484468
0.29957357 -0.72617358 -0.050226551
-0.076385327 -0.77718347 -0.019036563
-0.028077051 -0.78934586 0.026435936
-0.015516667 -0.78755897 0.025395323
-0.019538013 -0.79122829 0.02707752
-0.063535586 -0.78535956 3.4267791e-06
0.0012004707 -0.78782225 0.018598096
0.019047154 -0.77549952 -0.0077871974
-0.043701436 -0.79516846 0.019511687
-0.036907107 -0.79874831 0.022911271
-0.065459162 -0.78790659 -0.019654313
-0.015456666 -0.80062973 0.025213817
-0.045328084 -0.79760784 0.010859148
0.0087299543 -0.78795385 0.0026187964
0.2993426 -0.74680138 -0.039079562
0.010455904 -0.78850019 -0.020984083
0.29682094 -0.58610421 -0.087723412
-0.027983209 -0.80950129 0.022852147
-0.0058408687 -0.80123264 0.012623908
0.00035105349 -0.79716951 0.0020101916
-0.034111641 -0.80644578 0.019035563
-0.021001069 -0.80562383 0.026762269
-0.017910991 -0.80839074 0.021963317
-0.00062121253 -0.79763937 -0.010086404
