# .PCD v0.7 - Point Cloud Data file format
VERSION 0.7
FIELDS x y z
SIZE 4 4 4
TYPE F F F
COUNT 1 1 1
WIDTH 499
HEIGHT 1
VIEWPOINT 0 0 0 1 0 0 0
POINTS 499
DATA ascii
-0.019863004 -0.85769683 -0.0062043774
-0.013043056 -0.85560024 -0.006877081
-0.033159282 -0.85327274 -0.011560499
-0.020427693 -0.85484713 0.011297547
-0.0083478857 -0.85114062 -0.0047505852
-0.002766819 -0.84659439 -0.0076550194
-0.020269748 -0.85357267 0.015422346
-0.036692169 -0.84800088 -0.0048753358
-0.037555423 -0.84659207 0.006169037
-0.035808995 -0.84597349 0.011984767
-0.00029864177 -0.84196186 0.0053548552
-0.011698633 -0.84717947 0.024523115
-0.013500686 -0.84505743 0.030000359
-0.020158913 -0.84670597 0.031714406
-0.027912319 -0.84748024 0.024115458
-0.048125159 -0.83782053 -0.0061473208
0.010839299 -0.82983971 -0.0060190177
0.0049490128 -0.83221871 0.019187327
-0.045562722 -0.83579415 0.010954603
-0.053005986 -0.8320446 -0.0060658655
0.011111879 -0.828345 0.0048139505
-0.011902532 -0.83870137 0.031397358
-0.019757912 -0.83970392 0.033331856
-0.027601583 -0.83823901 0.03135433
-0.031804703 -0.84032851 0.026824649
-0.037261438 -0.83736861 0.023414977
0.0088187531 -0.82914531 0.01514599
-0.063927993 -0.8234787 -0.015597846
0.019699266 -0.8195318 -0.0062202737
0.013818319 -0.82358849 0.014954252
0.007153274 -0.82663399 0.022523262
0.0057146959 -0.83564276 0.011306262
0.024967857 -0.81340438 -0.0044008601
-0.055716757 -0.82546598 0.010721957
-0.063383125 -0.82322824 -0.0047376268
0.025776839 -0.81443495 0.0048543997
0.020333566 -0.8183921 0.0051396079
0.00017090053 -0.82909083 0.025699686
-0.0068542995 -0.82862008 0.028794615
-0.01181299 -0.83011454 0.030916883
-0.033553228 -0.83157182 0.029072316
-0.06928958 -0.81941366 -0.01761687
0.018775254 -0.81841695 0.015089234
-0.028928142 -0.82902205 0.031406414
-0.073665984 -0.81336373 -0.014857047
0.023601986 -0.81331611 0.016010871
0.002759777 -0.82205617 0.028880406
-0.062347971 -0.82097012 0.0056244414
-0.069127128 -0.81771594 -0.0045031928
0.010414632 -0.81965393 0.026031792
0.007047486 -0.81565845 0.030048147
-0.0096561564 -0.81880397 0.029329795
-0.067828663 -0.8164835 0.004109269
-0.073315956 -0.81338429 -0.00086088222
-0.00042959576 -0.8183828 0.030144533
0.29628438 -0.76706386 -0.027653383
0.040322699 -0.79911989 -0.016780453
-0.010277284 -0.81379128 0.029452996
-0.010110358 -0.81967026 0.029936502
-0.02966309 -0.81947058 0.030815739
-0.059704907 -0.81903177 0.01432053
0.038258884 -0.79993373 -0.0051913578
-0.079593003 -0.80850309 -0.01708647
0.044020716 -0.79288518 -0.012879259
0.026000295 -0.80693203 0.021659719
-0.057660356 -0.81615746 0.024563245
-0.084699117 -0.80390501 -0.014858075
0.00071800052 -0.83991981 0.015153575
-0.12815881 -0.74152368 -0.02014333
-0.079235576 -0.79637575 0.022022417
0.029405367 -0.79893398 0.024709387
-0.1265536 -0.7584914 -0.026487997
-0.06731391 -0.75211948 0.020071028
0.29828212 -0.52132648 -0.10925366
-0.090084866 -0.74907631 0.01542894
0.0015889022 -0.84093398 -0.0058306502
-0.0051726787 -0.84422636 0.018079344
-0.047641162 -0.82664883 0.022595087
-0.05373485 -0.82356811 0.017861689
-0.11622674 -0.7651698 0.0097139068
-0.12249711 -0.76319933 -0.0037613455
0.27275944 -0.55951983 -0.061906293
-0.080010302 -0.7786172 0.021897612
-0.043312721 -0.69696671 -0.017029278
-0.1185015 -0.75407296 0.0083415676
-0.034327321 -0.81754899 0.029073332
0.29778105 -0.76411825 -0.030855715
0.034833055 -0.8040033 -0.0097194621
0.28090873 -0.61861318 -0.051757827
-0.089989312 -0.77978092 0.022105465
0.28544754 -0.67716449 -0.041761715
0.00023377237 -0.75970614 0.023227753
-0.070945494 -0.67592192 -0.033712257
-0.059930906 -0.72898722 0.016810641
-0.029756399 -0.74945891 0.022713492
-0.099890985 -0.76937431 0.018109161
-0.030991357 -0.8514396 0.0056107873
0.27893868 -0.56950867 -0.065125845
-0.025911668 -0.84480751 0.030682834
0.017243886 -0.7634896 0.014373044
0.014986796 -0.82410085 0.0057959696
-0.08693257 -0.72237563 0.015157934
-0.039787509 -0.83983362 0.014914771
-0.090298958 -0.75743109 0.018936951
0.01004209 -0.77920657 0.024990512
-0.089503355 -0.7291795 0.013431381
0.00017283563 -0.80923843 0.030789724
-0.0098868068 -0.80901855 0.030526767
0.0054309694 -0.83518916 -0.0084511498
0.017254572 -0.81625068 0.02313013
-0.059380304 -0.6953066 -0.0010492801
0.27640766 -0.55933911 -0.065510109
0.27799836 -0.52993852 -0.07544753
-0.0095848404 -0.69920212 -0.035082363
0.26594999 -0.51008534 -0.069791898
0.2942723 -0.59768319 -0.082543418
-0.060365893 -0.71008718 0.012813234
-0.069736704 -0.73897356 0.017140308
-0.027090572 -0.85635686 -0.0064677978
-0.089385174 -0.76152492 0.020230748
0.29564399 -0.59077042 -0.085226491
-0.033487566 -0.84374887 0.018520668
-0.09491767 -0.79645556 -0.0006041911
0.29874447 -0.58954191 -0.0935072
0.030299872 -0.78898501 0.028175777
-0.031977076 -0.85205954 -0.0057005663
-0.031420577 -0.72211879 0.011147011
0.02608701 -0.79626369 0.030106854
0.26983058 -0.52922368 -0.065955736
-0.11848184 -0.77022725 -0.026902299
-0.049443383 -0.82890898 0.014395592
-0.069977351 -0.7692951 0.021392811
-0.079825997 -0.73919493 0.015092647
-0.027561596 -0.71053112 -0.011347402
-0.043251153 -0.84317416 -0.013326236
-0.069476552 -0.71008104 0.013294422
-0.030605502 -0.72985905 0.015597448
-0.019248614 -0.72905684 0.0061142882
-0.047635242 -0.83647043 0.004201435
-0.04927687 -0.687424 -0.024784077
0.0086963568 -0.76193696 0.021976072
-0.0074484493 -0.84084302 0.026866371
-0.049450044 -0.77966112 0.025356866
-0.069763459 -0.79886931 0.02458792
0.016260905 -0.82459337 -0.0095607955
-0.019475304 -0.85093486 0.025391772
0.27981257 -0.54812878 -0.074922666
0.27852163 -0.59962678 -0.054542761
-0.1141698 -0.74618125 -0.0010979453
-0.10770854 -0.74003941 0.0053776023
0.28691247 -0.5634681 -0.078175388
-0.0042183534 -0.84576499 0.0028570693
0.010396169 -0.7928915 0.029859304
-0.0018778248 -0.83788407 0.023525603
-0.024635132 -0.72385383 0.0047398573
-0.049410015 -0.6789726 -0.036246229
-0.049967457 -0.81931436 0.025863038
0.010385345 -0.73798585 -0.02608563
0.27682585 -0.55142677 -0.069634765
-0.030183556 -0.77926886 0.027050667
-0.018938009 -0.7083233 -0.024563249
-0.060009327 -0.73858798 0.018744776
-0.059809931 -0.78963983 0.026967684
0.026192253 -0.79318053 0.030080853
0.29944327 -0.6217528 -0.084894717
0.03122133 -0.81100118 -0.015953192
0.28382227 -0.54322189 -0.082848474
-0.069229946 -0.7018792 0.0072910036
-0.10239417 -0.78821707 -0.0061150542
-0.026334656 -0.72521067 0.0075106681
0.29451692 -0.52969688 -0.1027291
0.2857101 -0.59516364 -0.063874289
-0.010872466 -0.72050399 -0.016286146
-0.067409068 -0.6840378 -0.01610356
-0.010349354 -0.73657256 0.0067314394
0.013972616 -0.81220311 0.028952731
-0.12352057 -0.76231742 -0.015762545
-0.079409622 -0.69874066 -0.0092171524
-0.052951496 -0.8328346 -0.013216099
-0.04632074 -0.67625982 -0.040934842
-0.0098245908 -0.76918828 0.02579087
-0.010299779 -0.7887786 0.028525922
-0.11094618 -0.74889129 0.009167634
-0.018271081 -0.71649832 -0.015256201
-0.040006127 -0.68223184 -0.039313395
-0.12045132 -0.73317432 -0.020390065
-0.11144359 -0.78095847 -0.026110029
-0.12678191 -0.74025673 -0.022935068
-0.094258785 -0.79435128 -0.017047165
0.29183242 -0.56021172 -0.087345466
-0.07813064 -0.67819142 -0.037341699
-0.021083707 -0.71127188 -0.019138683
0.29684046 -0.66028774 -0.066801295
-0.098989807 -0.70843369 -0.028725591
-0.094975911 -0.77242416 0.019826913
-0.072988175 -0.6823107 -0.02629357
-0.026414074 -0.85477781 0.0033375206
0.28585303 -0.51577532 -0.090265185
0.27055511 -0.50902826 -0.074760683
0.28991097 -0.72968888 -0.032174841
-0.064831585 -0.81367797 0.015879728
0.29204494 -0.50649965 -0.10085443
-0.089732476 -0.73888713 0.012615985
0.28566498 -0.65763259 -0.048674215
-0.028610496 -0.70018262 -0.027637627
-0.052081764 -0.69968498 -0.00045221756
0.295724 -0.54776734 -0.094937481
-0.051683903 -0.83096665 0.0053775394
-0.024782367 -0.71388876 -0.0095895063
0.01618286 -0.80686474 0.030092413
0.0037119556 -0.74021322 -0.0071090548
-0.10635928 -0.78565979 -0.0043636691
0.2686334 -0.52039891 -0.067893311
0.27230573 -0.51964951 -0.070692293
0.2999396 -0.58281261 -0.095716335
-0.059792984 -0.77942497 0.025721125
-0.04289867 -0.70774722 0.0045100208
-0.069955923 -0.7291252 0.015715618
-0.012983789 -0.73235428 0.0034785967
0.28188407 -0.66829109 -0.042617679
0.28031349 -0.51800561 -0.082272083
-0.060027223 -0.81001675 0.02696096
0.28483653 -0.5100261 -0.09222462
0.28843066 -0.50825697 -0.096536681
-0.059874974 -0.71923399 0.015472898
0.29686439 -0.71891844 -0.045031138
0.045445021 -0.78791457 -0.0080754375
-0.020583194 -0.85567671 0.0044178735
-0.057414055 -0.82644248 0.0041183252
0.29473904 -0.57576418 -0.091026232
-0.032787949 -0.80936903 0.028760301
0.27556425 -0.53812712 -0.069631457
0.29827148 -0.50561816 -0.12128481
-0.029977979 -0.79916948 0.028013628
0.27151328 -0.54831213 -0.062877953
0.26984137 -0.53863794 -0.063783154
-0.010041442 -0.84898061 0.015321472
-0.030186426 -0.84967101 0.015004694
-0.08374656 -0.80312008 -0.0046653273
-0.0046551931 -0.8452701 0.010086598
0.030104684 -0.8090055 -0.0068826592
0.2984491 -0.53036213 -0.10703237
0.29230645 -0.53742737 -0.097638495
-0.019885022 -0.81943971 0.031007545
-0.049434893 -0.75927085 0.023002338
0.28458846 -0.5511443 -0.080670819
-0.070116304 -0.71941566 0.015582993
0.28299189 -0.55913454 -0.074634731
-0.01992037 -0.82933891 0.032521825
0.29013255 -0.66708463 -0.054923519
0.29674309 -0.68652439 -0.058989801
-0.086519621 -0.79492009 0.020469513
0.27484486 -0.56755304 -0.060913485
0.029660584 -0.75656998 -0.015249302
0.29412276 -0.54982537 -0.093531169
0.029888524 -0.80918252 0.0064749946
-0.088894516 -0.78830701 0.021950595
0.028577119 -0.80780596 0.015364135
-0.099036545 -0.74000305 0.011610603
-0.010014022 -0.85059738 0.0049647065
0.027777519 -0.77938884 0.025294688
0.27627981 -0.58045852 -0.058879353
0.28113672 -0.57852775 -0.065612495
0.28717357 -0.53938276 -0.089014858
0.29256073 -0.57246965 -0.087175407
-0.039801531 -0.78955203 0.026855864
0.29822627 -0.57047135 -0.096256144
0.28854707 -0.55045295 -0.086241379
0.29252908 -0.52155274 -0.10440098
-0.095794089 -0.73057282 0.011493424
-0.020820932 -0.79891634 0.028679933
0.29202017 -0.57631534 -0.086266525
-0.056058172 -0.67681205 -0.034588058
-0.039686486 -0.82005757 0.027778856
-0.058046825 -0.82766473 -0.005285244
-0.066670276 -0.80780977 0.02213704
0.2858817 -0.6655522 -0.04575064
-0.099866048 -0.7497859 0.015263347
-0.079878509 -0.75651854 0.018760385
-0.056828387 -0.70516664 0.0083560469
-0.053837102 -0.67402565 -0.038607243
-0.050276604 -0.78927845 0.026795909
0.020228833 -0.80966604 0.025692753
-0.0011313611 -0.74878001 0.018009828
-0.099686094 -0.73221856 0.0072766882
-0.043864753 -0.83311248 0.017882925
0.28197807 -0.62706095 -0.052231867
0.29673406 -0.60776645 -0.085626513
-0.040084828 -0.73964012 0.020854624
-0.07136979 -0.67176455 -0.039304163
-0.063244514 -0.68112576 -0.017287457
-0.077579431 -0.67373806 -0.03953518
-0.068254665 -0.6874885 -0.013134463
-0.059804264 -0.68668038 -0.013206587
-0.010085942 -0.75948471 0.025220348
0.018006679 -0.77220392 0.021326104
0.28596538 -0.63291562 -0.055307526
0.034814835 -0.80274796 0.0053452239
-0.059029728 -0.69253772 -0.0048080403
-0.10606559 -0.78530174 -0.012861948
0.002203125 -0.72667181 -0.025961233
-0.07267002 -0.68524897 -0.022813909
-0.068506755 -0.69086546 -0.010163561
-0.060292475 -0.70043236 0.005333785
-0.052280668 -0.69110984 -0.015552627
-0.053246289 -0.68205345 -0.029992513
0.28764451 -0.5031268 -0.099294595
-0.039863445 -0.76925051 0.024822839
0.0022340941 -0.79307139 0.029810486
-0.05188581 -0.7024222 0.0027543074
-0.04665906 -0.68475056 -0.033540815
0.28878754 -0.53008789 -0.096146069
-0.050359368 -0.70657408 0.0071796491
0.28620335 -0.65011871 -0.048919972
-0.050906345 -0.71171474 0.01192184
-0.039111618 -0.68806845 -0.036304787
0.022219598 -0.82081592 -0.015155173
-0.07928662 -0.72008783 0.016624751
-0.029612083 -0.68918961 -0.036789421
-0.04058066 -0.71314883 0.011509119
-0.039857574 -0.77928144 0.026263593
0.29364148 -0.6468448 -0.063414015
-0.060731996 -0.67906415 -0.025206244
-0.049554046 -0.71972978 0.015559641
-0.039776683 -0.71964538 0.014808397
-0.015810361 -0.85407096 0.0086960997
0.29120263 -0.65170056 -0.057698417
-0.028146412 -0.69630545 -0.031855732
0.29091042 -0.65885323 -0.057103578
-0.09461879 -0.71166855 -0.016207827
-0.039865591 -0.74919802 0.022908604
-0.094996996 -0.70884973 -0.018294565
-0.032170188 -0.71293873 0.0022830691
-0.069690727 -0.75981069 0.02076998
-0.018924048 -0.69862473 -0.033629883
-0.12094275 -0.73874164 -0.015513583
0.0069707348 -0.72960961 -0.029035445
0.047374751 -0.78941554 -0.016767334
-0.080104001 -0.72911447 0.015032869
-0.07622461 -0.71149689 0.01535396
-0.030422898 -0.71780849 0.0048178839
3.3993458e-06 -0.70890278 -0.033276219
-0.059575289 -0.75980341 0.022534804
-0.050415304 -0.72975165 0.017783172
-0.020641159 -0.70299816 -0.029141257
0.29381359 -0.66000986 -0.061155196
-0.039944228 -0.72866422 0.018064385
-0.026528809 -0.716066 -0.0049886154
-0.021788757 -0.71959883 -0.0053343424
-0.0097245425 -0.70614511 -0.031686522
0.025432764 -0.7732439 0.019242229
-0.1094557 -0.73157966 -0.0084022153
-0.041957296 -0.73317087 0.019789189
-0.010129645 -0.71098095 -0.027660679
-0.12213957 -0.73044127 -0.027303152
-0.049132962 -0.80918622 0.028306177
-0.1021609 -0.73708004 0.0078147836
-0.04601676 -0.73420453 0.019924348
-0.051638581 -0.73618203 0.019124921
-0.049342956 -0.74076265 0.020642912
-0.035937291 -0.73574507 0.019372636
-0.029037924 -0.73750162 0.018652288
-0.022380995 -0.73195142 0.011990301
-0.0089751659 -0.71657211 -0.022840142
0.29868609 -0.66573793 -0.0701534
-0.015666625 -0.72496724 -0.0036773386
-0.0027822631 -0.71377003 -0.029448098
-0.125117 -0.75994343 -0.010420893
0.27792606 -0.6090408 -0.051821262
-0.030805608 -0.74135685 0.020423787
-0.0197533 -0.73884213 0.015968602
-0.009909803 -0.72923213 -0.004759986
-0.00067203102 -0.71991575 -0.026944101
-0.0422047 -0.8415699 0.0047046053
-0.04286921 -0.84202135 -0.0060508894
-0.11272688 -0.74095935 -0.0032302886
-0.10521141 -0.74368805 0.012424548
-0.056345176 -0.74375743 0.020080782
-0.0082798852 -0.72493517 -0.013178444
0.0037964694 -0.7177071 -0.031740978
-0.11673525 -0.74030185 -0.0087565193
-0.10809785 -0.75002384 0.011671335
-0.07967186 -0.74912769 0.01634988
-0.070802346 -0.74859023 0.018508585
-0.059983276 -0.7496019 0.020467728
-0.0099539245 -0.75115621 0.022215711
-0.0036612209 -0.74266434 0.01292499
-0.10881498 -0.76830143 0.013941629
-0.064686075 -0.74733162 0.019307438
-0.049983829 -0.74949139 0.021491183
-0.021614583 -0.74327874 0.019812049
-0.010180363 -0.74126685 0.012982705
-0.0036388873 -0.72692996 -0.016353659
7.5037526e-05 -0.77927691 0.025920089
-0.019840771 -0.74962741 0.022907782
-0.058124047 -0.67188776 -0.038626816
-0.0048069693 -0.7322408 -0.0060269232
-0.11293714 -0.77080595 0.0057161241
-0.008689235 -0.74594975 0.017639635
-0.066448733 -0.81454736 0.0102141
-0.11864871 -0.75971341 0.011575797
-0.10993425 -0.7591669 0.013301516
-0.099880978 -0.75934285 0.016789529
-0.039865226 -0.75932252 0.02396699
-0.03032811 -0.75925779 0.0246391
-0.12141811 -0.76249665 0.0071474086
-0.079785727 -0.76173472 0.020545626
-0.01995294 -0.75941163 0.02551372
-0.0018724708 -0.75274688 0.020659035
-0.091195606 -0.76852274 0.019327683
-0.089030236 -0.76983094 0.01998462
-0.079978056 -0.7690984 0.020188272
0.0087469881 -0.75831783 0.017925426
-0.11754235 -0.76623374 0.0040908819
-0.059905604 -0.7695145 0.024371222
-0.050352238 -0.76917696 0.024249518
-0.019846067 -0.76919252 0.025823118
-0.11844995 -0.76894045 -0.0043053059
-2.9015902e-05 -0.76926267 0.024900006
0.0093513262 -0.7696709 0.024362635
-0.1021574 -0.77930373 0.017573509
0.02400732 -0.74835747 -0.024846716
-0.029499549 -0.76937652 0.0252074
-0.12442241 -0.76186633 -0.026863735
-0.10686655 -0.77956414 0.012666267
-0.097359814 -0.78007776 0.020411313
-0.0697385 -0.77893543 0.024212169
0.019883266 -0.7683081 0.016629795
-0.11964784 -0.7468971 -0.0044986475
-0.11104872 -0.77896738 0.0044736904
-0.019812135 -0.77935928 0.027340278
-0.0096518956 -0.77970701 0.027272597
0.028271098 -0.75301743 -0.020229733
-0.11811765 -0.77113777 -0.015241238
0.024988415 -0.76329738 0.0016838306
0.027154101 -0.76177102 -0.0042764368
-0.11196094 -0.78031564 -0.0033944577
-0.098859087 -0.78746253 0.015146919
-0.040057756 -0.82933456 0.026590236
-0.095672697 -0.7854377 0.020389775
-0.079742327 -0.78921276 0.02435283
-0.06964504 -0.78911543 0.026603049
0.0197214 -0.77989155 0.025542783
-0.039745085 -0.79970604 0.027229987
-0.10551592 -0.78494227 0.01098407
0.29819965 -0.72823268 -0.044876706
-0.029753648 -0.78924984 0.027612716
-0.10662515 -0.78555489 0.0051280297
-0.020060688 -0.78919941 0.02857721
-0.11105156 -0.77927744 -0.013446259
-0.10055961 -0.78971237 0.0057559661
-0.092832148 -0.79195076 0.016474631
-0.00016849037 -0.78863078 0.028252536
0.009896555 -0.78787655 0.028389854
0.041474395 -0.79155028 0.0048884582
0.29524612 -0.73526716 -0.036416136
0.019191191 -0.78715074 0.028766382
0.039929472 -0.79060596 0.014741024
-0.12226661 -0.72766536 -0.032115214
-0.0045715091 -0.72286946 -0.019533908
-0.060103472 -0.79964614 0.026627205
-0.089287795 -0.79673612 0.014175263
0.020240702 -0.79165065 0.03036277
0.037389722 -0.7895239 0.023940552
-0.10063274 -0.78854388 -0.018372379
-0.079976209 -0.79986668 0.015121806
-0.016192168 -0.7987988 0.029874567
-0.01090462 -0.79402721 0.029863525
0.299164 -0.74002135 -0.042821709
-0.096419238 -0.79516613 0.0053762826
-0.090134695 -0.79824978 0.0051715081
-0.0097731231 -0.79991943 0.030277193
-0.0068327179 -0.79511172 0.029237349
-0.00062609097 -0.79577768 0.02943391
1.4226204e-05 -0.80006129 0.030365316
0.01010331 -0.79985392 0.030301634
0.01962753 -0.79835862 0.03075562
0.048856594 -0.78045058 -0.016515881
-0.049731169 -0.79966396 0.027929651
-0.073396683 -0.80300456 0.016969351
-0.089118749 -0.79946947 -0.0045662038
-0.080883734 -0.80213404 0.0049601863
0.043629069 -0.78981435 -0.0041688439
-0.040129457 -0.80950266 0.026588466
0.022801429 -0.80241138 0.027957505
-0.089010254 -0.80033076 -0.016241437
-0.069409564 -0.8089292 0.014026504
-0.028047191 -0.81061238 0.030483665
-0.019951945 -0.8092159 0.030751731
0.033043195 -0.80094457 0.015711656
0.036620885 -0.7966584 0.013276452
-0.055356748 -0.81147611 0.029800367
-0.052769572 -0.81098485 0.029876146
-0.076649807 -0.80621177 0.0019040135
-0.071912557 -0.81065995 0.0054243458
0.0097122919 -0.80942589 0.030297806
0.037598945 -0.79872978 0.0047778003
0.28696084 -0.56974471 -0.077460662
-0.078473315 -0.80783993 -0.0047112312
